ply
format ascii 1.0
element vertex 1253
property float x
property float y
property float z
property uchar red
property uchar green
property uchar blue
end_header
15.9237 105.511 -60.2345  255 255 255
78.9186 122.476 -87.2486  255 255 255
65.6142 118.599 -81.9604  255 255 255
58.0409 73.7399 -16.3003  255 255 255
58.1259 70.8938 -12.1203  255 255 255
70.1494 119.682 -84.6244  255 255 255
61.4157 67.9243 -8.47543  255 255 255
-28.414 92.0718 -39.928  255 255 255
47.3277 113.285 -75.2493  255 255 255
59.122 68.6138 -10.1171  255 255 255
25.7174 107.218 -66.0579  255 255 255
-9.81321 97.7737 -50.2463  255 255 255
5.42031 101.304 -56.9053  255 255 255
53.9089 48.8581 18.8789  255 255 255
-12.0322 96.8275 -49.423  255 255 255
26.8261 107.101 -67.0371  255 255 255
57.3942 71.426 -15.6664  255 255 255
2.59677 100.195 -56.2167  255 255 255
13.7594 103.036 -61.0713  255 255 255
0.985858 99.5802 -55.2793  255 255 255
30.7595 107.902 -69.2212  255 255 255
22.7083 105.309 -65.7213  255 255 255
-33.1437 90.5581 -40.3587  255 255 255
60.9394 42.9044 26.1297  255 255 255
-72.847 79.2628 -21.0513  255 255 255
63.188 114.85 -83.8823  255 255 255
-36.5328 88.7511 -39.1441  255 255 255
-8.55786 95.9543 -52.3813  255 255 255
-8.53295 95.9925 -52.4504  255 255 255
-38.6103 88.1468 -38.3996  255 255 255
57.9907 46.2462 19.1564  255 255 255
-0.866754 97.6295 -56.1081  255 255 255
59.7307 44.2478 21.8207  255 255 255
23.9817 104.135 -67.8417  255 255 255
57.9352 45.51 19.6651  255 255 255
66.9184 58.0868 -0.450599  255 255 255
-12.9022 93.8552 -50.4278  255 255 255
-6.38091 95.5002 -54.0796  255 255 255
58.511 43.4326 21.9251  255 255 255
-39.5726 87.2409 -38.9142  255 255 255
61.3549 39.4465 27.9387  255 255 255
-1.38322 96.6092 -56.6667  255 255 255
-14.2169 93.3085 -50.8106  255 255 255
83.4474 117.555 -94.093  255 255 255
58.4774 43.3014 21.2354  255 255 255
61.8126 39.3877 27.0537  255 255 255
7.3359 98.3292 -60.9686  255 255 255
73.0756 114.341 -89.9386  255 255 255
61.9937 37.5892 29.5495  255 255 255
-65.5461 79.896 -27.0442  255 255 255
61.8578 38.8014 27.1127  255 255 255
66.8814 36.773 30.2406  255 255 255
66.8811 36.7729 30.2409  255 255 255
64.8925 111.772 -86.6244  255 255 255
15.9055 99.9231 -65.7402  255 255 255
58.2726 66.9918 -17.5033  255 255 255
1.72758 96.1506 -58.9747  255 255 255
62.1944 38.4807 26.6911  255 255 255
68.3618 36.2493 30.0969  255 255 255
28.8423 101.825 -70.9569  255 255 255
77.2864 33.178 34.0149  255 255 255
63.3408 110.346 -87.0789  255 255 255
70.5456 33.6588 32.3646  255 255 255
-10.9737 91.4388 -54.1472  255 255 255
-70.8513 76.8541 -25.7007  255 255 255
-70.8576 76.9331 -25.8101  255 255 255
-13.6955 90.6119 -53.0142  255 255 255
-13.6362 90.6789 -53.3229  255 255 255
81.332 113.056 -95.6117  255 255 255
77.4313 111.742 -93.8717  255 255 255
-9.05614 91.0224 -55.4309  255 255 255
82.7904 112.972 -97.0323  255 255 255
118.522 121.46 -113.284  255 255 255
59.5648 106.828 -87.5362  255 255 255
53.6948 105.087 -84.9526  255 255 255
56.3425 42.5 14.7134  255 255 255
64.7113 55.9448 -7.52705  255 255 255
63.0013 35.1439 26.3086  255 255 255
63.001 35.1438 26.3088  255 255 255
-65.8231 76.4512 -29.3144  255 255 255
55.6651 104.452 -86.2066  255 255 255
46.4336 102.45 -82.9484  255 255 255
19.6331 95.4832 -70.9535  255 255 255
70.6302 107.455 -95.0062  255 255 255
53.4885 102.426 -87.4969  255 255 255
-36.2778 81.6794 -44.8787  255 255 255
30.6604 97.213 -77.3233  255 255 255
-24.8619 83.597 -50.9436  255 255 255
-1.00466 88.6558 -62.7204  255 255 255
30.5 96.0488 -78.0592  255 255 255
69.5793 104.314 -95.6169  255 255 255
69.711 104.397 -95.7474  255 255 255
72.4304 104.766 -96.9324  255 255 255
83.832 107.865 -102.841  255 255 255
-65.2692 73.9127 -32.1294  255 255 255
43.5861 97.2706 -85.3044  255 255 255
43.5087 97.192 -85.1478  255 255 255
14.4617 90.6754 -71.4998  255 255 255
14.4389 90.6707 -71.4599  255 255 255
-43.2106 77.8868 -43.3576  255 255 255
44.6792 97.3154 -85.8803  255 255 255
106.131 109.987 -113.15  255 255 255
56.7287 38.2306 11.7856  255 255 255
42.7703 96.4982 -85.2573  255 255 255
67.1512 48.3025 -6.06118  255 255 255
19.5526 91.3603 -74.0968  255 255 255
59.1423 57.3383 -21.3326  255 255 255
-2.93205 86.2992 -63.7198  255 255 255
-68.8213 71.456 -31.0211  255 255 255
-54.3637 74.4629 -38.3581  255 255 255
-44.3426 76.5498 -43.5213  255 255 255
54.5918 97.9547 -91.9766  255 255 255
44.4939 95.6849 -86.9279  255 255 255
-65.8196 71.8986 -32.8141  255 255 255
-45.2595 76.2692 -43.3255  255 255 255
57.1079 98.031 -92.8468  255 255 255
30.2904 92.2251 -80.3944  255 255 255
37.8707 93.9192 -84.1464  255 255 255
-20.1081 81.0674 -55.7442  255 255 255
61.5097 52.791 -17.4374  255 255 255
70.682 99.848 -99.1225  255 255 255
117.931 109.847 -120.688  255 255 255
-52.034 73.7813 -40.6537  255 255 255
60.4453 55.1479 -23.0721  255 255 255
63.2145 50.0144 -14.7481  255 255 255
39.7588 93.0984 -86.6519  255 255 255
34.9962 91.7925 -84.1089  255 255 255
69.1967 99.4338 -100.773  255 255 255
66.4115 46.4704 -9.34317  255 255 255
85.2672 101.689 -106.943  255 255 255
-50.0783 73.6683 -42.1635  255 255 255
59.9551 96.3341 -95.7329  255 255 255
-52.5073 72.5935 -41.0112  255 255 255
-52.9369 70.9203 -38.0687  255 255 255
-4.83145 82.1729 -65.0425  255 255 255
-15.116 79.6401 -60.5068  255 255 255
-67.4925 69.0045 -34.0249  255 255 255
-47.8581 72.9956 -44.1055  255 255 255
-47.8473 73.0038 -44.1134  255 255 255
90.6555 101.072 -111.41  255 255 255
71.1652 96.874 -102.22  255 255 255
20.2595 86.4456 -78.0441  255 255 255
-37.3367 74.9872 -49.7785  255 255 255
25.1551 87.4539 -80.9055  255 255 255
-74.5002 67.0825 -30.5423  255 255 255
21.9411 86.5076 -79.2366  255 255 255
-29.6998 76.0497 -53.7356  255 255 255
57.7516 93.3544 -96.4463  255 255 255
57.6811 93.246 -96.2385  255 255 255
-54.2338 70.7979 -41.4607  255 255 255
72.7778 95.8619 -104.024  255 255 255
-73.2829 63.1385 -25.6325  255 255 255
66.2403 23.8177 24.7502  255 255 255
69.5785 95.2109 -104.074  255 255 255
68.737 94.5309 -102.628  255 255 255
62.4396 26.7206 18.9686  255 255 255
-24.3694 75.263 -56.9522  255 255 255
98.1827 99.4858 -116.963  255 255 255
58.2632 31.221 10.3613  255 255 255
-23.3779 75.2986 -57.9988  255 255 255
-54.1699 69.5782 -42.6635  255 255 255
91.3834 97.4594 -114.274  255 255 255
-8.38402 78.0333 -66.0054  255 255 255
-8.41932 78.0031 -65.895  255 255 255
65.7728 42.9892 -13.2794  255 255 255
-51.3501 69.6976 -43.9904  255 255 255
-51.3542 69.7006 -43.9919  255 255 255
55.5946 33.4038 5.37953  255 255 255
55.5946 33.4038 5.37945  255 255 255
33.5947 85.8514 -86.716  255 255 255
7.12569 80.7419 -74.0437  255 255 255
5.85447 80.44 -73.6962  255 255 255
3.33633 79.6836 -72.562  255 255 255
-62.4016 67.2013 -39.028  255 255 255
1.97573 79.1413 -71.6417  255 255 255
2.05674 79.2259 -71.8977  255 255 255
0.581491 78.8479 -71.1729  255 255 255
0.611791 78.8855 -71.2988  255 255 255
-43.3312 69.9411 -47.9713  255 255 255
-71.63 65.0678 -34.5267  255 255 255
2.42361 78.1815 -72.5399  255 255 255
66.888 90.3075 -104.385  255 255 255
63.3782 89.2209 -102.675  255 255 255
42.3296 84.3344 -93.6378  255 255 255
42.3827 84.4104 -93.762  255 255 255
79.0408 90.9151 -111.704  255 255 255
90.5003 92.6293 -117.507  255 255 255
90.4998 92.629 -117.506  255 255 255
91.6297 92.4073 -117.83  255 255 255
37.3044 82.8011 -92.2799  255 255 255
89.8386 92.2322 -118.167  255 255 255
-32.5669 69.5811 -56.5144  255 255 255
-69.0334 62.9769 -37.6257  255 255 255
63.4191 21.6401 17.2892  255 255 255
58.6004 25.8351 8.24823  255 255 255
80.4801 87.9898 -114.425  255 255 255
75.0042 86.4956 -112.949  255 255 255
69.8774 84.7281 -109.987  255 255 255
65.7299 83.7467 -108.847  255 255 255
66.2595 35.7176 -16.858  255 255 255
65.7818 15.6696 20.988  255 255 255
22.5642 74.7405 -88.3642  255 255 255
89.6658 85.524 -122.449  255 255 255
62.7949 18.923 14.1573  255 255 255
60.638 39.2119 -28.5274  255 255 255
-25.8624 65.6154 -64.095  255 255 255
63.7626 35.5464 -23.5065  255 255 255
55.5662 24.8933 -1.46314  255 255 255
63.3647 35.7324 -25.2889  255 255 255
0.361498 68.3022 -78.4625  255 255 255
-4.95524 66.8165 -76.9679  255 255 255
16.5174 67.4652 -83.2447  255 255 255
-54.8025 59.0838 -49.9492  255 255 255
-1.86962 66.6503 -78.2724  255 255 255
64.6166 32.9907 -23.6702  255 255 255
17.0662 65.5865 -82.7041  255 255 255
1.28275 66.5953 -81.4042  255 255 255
15.8704 66.5118 -85.6264  255 255 255
64.1731 31.3297 -25.7425  255 255 255
65.6836 11.5102 16.0389  255 255 255
56.8865 19.9188 -0.674879  255 255 255
57.062 19.654 -1.45695  255 255 255
-23.6315 59.8233 -69.3999  255 255 255
60.1363 33.3673 -35.3659  255 255 255
63.2237 12.2207 9.75025  255 255 255
63.2924 12.2425 9.61218  255 255 255
63.7324 11.2072 11.0105  255 255 255
-35.7104 57.0041 -64.1129  255 255 255
-67.9828 52.7607 -46.3976  255 255 255
68.6418 70.3548 -121.186  255 255 255
56.5699 17.8594 -3.66363  255 255 255
17.013 63.2352 -93.353  255 255 255
66.9956 7.04199 15.9558  255 255 255
71.0069 2.40869 24.7335  255 255 255
-56.4822 52.6159 -53.7768  255 255 255
66.4456 5.75232 16.0483  255 255 255
10.3858 60.1238 -91.4186  255 255 255
66.2854 6.1591 13.9242  255 255 255
67.045 4.23193 17.4721  255 255 255
-71.2615 49.6822 -46.5027  255 255 255
62.4582 26.8915 -34.2281  255 255 255
-46.7127 52.5628 -61.2448  255 255 255
-46.702 52.5865 -61.2525  255 255 255
66.2855 5.49745 13.2518  255 255 255
55.7808 14.8172 -8.13033  255 255 255
-59.4596 49.5498 -53.9847  255 255 255
30.4066 59.7432 -104.149  255 255 255
69.2541 1.56766 17.904  255 255 255
-12.5007 53.8278 -81.7891  255 255 255
75.4431 -5.48473 30.5471  255 255 255
69.1475 -0.55697 20.0114  255 255 255
66.8629 2.48076 12.5019  255 255 255
-1.61732 3.90946 26.8625  255 255 255
60.0531 7.63452 -0.587576  255 255 255
-14.8628 51.5284 -82.2991  255 255 255
71.1682 -2.58518 20.4067  255 255 255
-66.0173 46.0643 -52.7303  255 255 255
60.7822 6.29748 1.40192  255 255 255
-5.84449 51.8653 -87.4197  255 255 255
-56.838 45.9763 -59.108  255 255 255
-24.681 48.7269 -77.6328  255 255 255
6.17278 -2.1432 34.927  255 255 255
-65.7173 44.4798 -53.8187  255 255 255
-61.9807 44.7752 -55.8463  255 255 255
-61.9712 44.7169 -55.7907  255 255 255
62.9706 3.58999 2.80958  255 255 255
63.0537 3.59902 2.70597  255 255 255
6.64522 -2.57039 35.0894  255 255 255
-12.8155 47.8635 -81.566  255 255 255
67.7049 -1.35811 12.1446  255 255 255
-74.0441 43.3808 -49.3416  255 255 255
73.5104 -7.37952 24.187  255 255 255
3.60158 -3.74071 37.2037  255 255 255
-53.8558 43.164 -59.7977  255 255 255
9.14263 49.6296 -98.7727  255 255 255
-15.4007 3.49504 24.2974  255 255 255
-63.7041 42.651 -56.4484  255 255 255
65.0921 -0.57912 5.82894  255 255 255
-4.21457 47.5243 -92.1055  255 255 255
-8.02468 -2.89708 35.86  255 255 255
-73.2672 40.8847 -50.2043  255 255 255
-16.6192 3.12436 23.0932  255 255 255
-7.68738 46.6633 -90.4387  255 255 255
24.0101 40.8996 -89.4701  255 255 255
-62.3522 41.5104 -58.625  255 255 255
62.3937 0.183818 -0.717965  255 255 255
-4.70401 -5.48667 38.1837  255 255 255
56.4566 5.47495 -12.8156  255 255 255
63.397 -1.97047 3.89664  255 255 255
-15.195 -1.18824 30.3864  255 255 255
70.8795 -7.77507 15.5617  255 255 255
6.19837 -7.35403 37.6034  255 255 255
-11.7101 -3.96302 34.7931  255 255 255
-12.1374 43.4729 -89.436  255 255 255
-16.0491 -2.20748 30.6273  255 255 255
-14.5982 -3.40764 32.4225  255 255 255
11.1598 36.7327 -84.5866  255 255 255
-8.13172 41.6645 -91.34  255 255 255
67.1347 -6.83557 7.67497  255 255 255
67.1348 -6.83557 7.67491  255 255 255
-1.66353 -8.77981 39.5566  255 255 255
-14.8517 40.9416 -89.18  255 255 255
-57.7324 37.8006 -64.913  255 255 255
12.6616 -9.89767 35.0213  255 255 255
-20.2406 -1.65358 24.8798  255 255 255
-63.3079 36.3641 -61.1153  255 255 255
-56.7719 36.7197 -65.6125  255 255 255
-56.7719 36.7197 -65.6125  255 255 255
-53.8365 36.3382 -67.4279  255 255 255
-23.1156 38.3946 -86.6169  255 255 255
-60.1558 35.8508 -63.6232  255 255 255
-24.2039 37.9794 -85.7328  255 255 255
3.88622 30.0605 -76.0842  255 255 255
5.99169 -11.5749 38.4449  255 255 255
-7.73411 -9.59956 38.6689  255 255 255
68.3693 -10.1693 7.18361  255 255 255
72.8607 -14.801 15.4522  255 255 255
5.86591 28.2179 -77.0965  255 255 255
70.018 -12.5694 9.62544  255 255 255
-13.3183 -8.64326 35.8862  255 255 255
-3.96266 -11.6479 39.9007  255 255 255
68.3032 -11.3528 6.16228  255 255 255
-29.7356 35.5876 -83.5514  255 255 255
75.259 -15.5527 13.4602  255 255 255
-15.1409 -8.8785 34.7404  255 255 255
-21.8448 -4.19622 22.7576  255 255 255
69.8856 -14.1216 7.79214  255 255 255
-12.96 -10.7001 36.58  255 255 255
11.1218 -14.3766 35.5139  255 255 255
69.8651 -15.0403 7.64711  255 255 255
72.4023 -17.0392 12.2385  255 255 255
72.4173 -17.0444 12.2426  255 255 255
-38.7289 31.7684 -79.0977  255 255 255
73.5076 -18.9967 13.1893  255 255 255
-18.2935 -9.73821 31.4093  255 255 255
66.5365 -13.9387 -1.23359  255 255 255
-20.666 -8.92266 29.0789  255 255 255
-1.77662 -15.6751 39.9782  255 255 255
-24.2137 -4.71872 17.5228  255 255 255
-11.0349 -14.0395 38.0062  255 255 255
-29.8781 -1.15654 6.37657  255 255 255
72.939 -20.6219 10.7313  255 255 255
-26.3197 -6.1502 19.5017  255 255 255
-26.0904 -6.44321 19.4786  255 255 255
1.85335 -17.6757 39.4618  255 255 255
73.2945 -21.4533 10.5485  255 255 255
-17.282 -12.7456 33.7543  255 255 255
-25.9456 -7.48028 20.8691  255 255 255
-16.6195 -13.398 34.545  255 255 255
-0.000218011 -18.0998 39.9299  255 255 255
4.31668 -19.295 38.7555  255 255 255
-24.5979 -9.57354 23.7582  255 255 255
73.9719 -23.3226 9.9927  255 255 255
72.5132 -22.8681 7.81127  255 255 255
72.5649 -22.8631 7.7051  255 255 255
2.21682 -19.6046 39.0776  255 255 255
7.99169 -20.9052 38.5245  255 255 255
80.3064 -26.1253 9.72428  255 255 255
-33.2759 -7.66564 15.0596  255 255 255
-27.3596 -11.3615 23.8663  255 255 255
75.4237 -27.7591 13.2451  255 255 255
-25.3249 8.01717 -49.3534  255 255 255
-22.5085 -15.305 31.3028  255 255 255
65.6368 -20.8371 -8.54  255 255 255
-6.80666 -20.4748 38.5487  255 255 255
80.5412 -28.741 6.16064  255 255 255
-19.5598 -17.8676 34.5893  255 255 255
-25.5381 -15.3812 28.0372  255 255 255
75.7897 -30.6523 10.7549  255 255 255
85.2295 -30.724 2.09892  255 255 255
-32.2811 -13.8992 23.7609  255 255 255
-50.6069 8.61457 -49.4834  255 255 255
69.3643 -27.3128 -3.78541  255 255 255
10.0554 -27.3851 40.8729  255 255 255
10.5385 -27.5818 41.1469  255 255 255
-31.5057 -14.8187 24.4148  255 255 255
-32.375 -15.1064 25.4142  255 255 255
-32.103 -15.3968 25.8163  255 255 255
10.9974 -28.2683 41.8452  255 255 255
-32.3294 -15.628 25.6549  255 255 255
-22.0386 -19.7223 33.3706  255 255 255
11.4409 -28.6009 41.177  255 255 255
75.9103 -34.703 9.01758  255 255 255
76.5952 -36.29 10.3409  255 255 255
78.0267 -37.7841 13.2168  255 255 255
-36.8131 -2.62087 -34.77  255 255 255
-36.8329 -2.59428 -34.8584  255 255 255
-25.9852 -21.5244 33.7245  255 255 255
-29.7319 -19.8895 30.0745  255 255 255
-29.655 -20.2267 29.5259  255 255 255
-6.96986 -28.5325 42.7318  255 255 255
10.2213 -31.6679 40.2241  255 255 255
11.6526 -31.7624 39.075  255 255 255
11.6527 -31.7624 39.0749  255 255 255
-28.5186 -21.9955 34.0812  255 255 255
-8.29277 -29.4717 43.8063  255 255 255
-23.3998 -24.6683 36.6882  255 255 255
-6.16244 -30.2197 44.5831  255 255 255
13.4194 -32.8705 36.9852  255 255 255
-22.066 -25.4078 37.5076  255 255 255
-15.3332 -28.4121 41.3241  255 255 255
-46.7688 -6.25517 -30.7074  255 255 255
-30.8792 -22.0152 24.5776  255 255 255
-16.0219 -28.9828 40.4527  255 255 255
-3.0599 -32.4176 42.375  255 255 255
-3.0677 -32.4179 42.3979  255 255 255
-7.47612 -31.8045 43.7064  255 255 255
-4.10225 -33.0668 43.1818  255 255 255
-40.8291 -11.632 -22.726  255 255 255
-3.34048 -33.5297 41.6612  255 255 255
-61.9698 -7.68708 -28.4902  255 255 255
-24.7501 -27.4656 32.8136  255 255 255
-7.8151 -33.5002 42.8655  255 255 255
-13.5171 -31.5763 39.7483  255 255 255
-22.0384 -28.7503 35.1799  255 255 255
11.0078 -36.68 35.4738  255 255 255
-22.1871 -28.8264 34.7028  255 255 255
-7.57501 -33.7086 41.6847  255 255 255
-8.44513 -33.4877 40.5776  255 255 255
-23.2247 -28.8633 33.5333  255 255 255
10.2863 -37.1351 35.6848  255 255 255
-12.9099 -32.4555 39.2815  255 255 255
-23.756 -28.8688 32.7328  255 255 255
-51.7365 -12.4941 -23.5724  255 255 255
53.064 -44.9361 18.5008  255 255 255
-45.3347 -15.7339 -18.2875  255 255 255
-50.8778 -14.2828 -20.4389  255 255 255
-50.8778 -14.2828 -20.439  255 255 255
16.9903 -39.3285 30.8892  255 255 255
16.8357 -39.195 30.4798  255 255 255
-7.78568 -35.2741 40.7381  255 255 255
9.60285 -38.5826 35.3904  255 255 255
-12.5308 -34.0882 38.0181  255 255 255
-47.3879 -17.069 -16.3586  255 255 255
5.20851 -39.0209 38.3409  255 255 255
-16.0764 -33.7506 36.2333  255 255 255
-2.79784 -37.8522 37.4635  255 255 255
-45.6054 -19.642 -13.0221  255 255 255
-23.8194 -31.7917 30.4424  255 255 255
-50.4127 -18.844 -14.4109  255 255 255
-11.7595 -36.4964 36.6324  255 255 255
-0.298407 -39.575 37.3444  255 255 255
-30.5159 -29.6064 21.1563  255 255 255
-11.7615 -36.8206 36.4566  255 255 255
-30.4447 -30.0526 21.0288  255 255 255
-11.2793 -37.3833 36.1687  255 255 255
-29.6478 -30.6473 21.8825  255 255 255
-48.6204 -21.6236 -10.6958  255 255 255
-48.6204 -21.6324 -10.7282  255 255 255
-50.0101 -21.4062 -11.3225  255 255 255
-7.46651 -38.8986 37.1045  255 255 255
-49.0389 -21.8211 -10.4068  255 255 255
-2.07866 -40.152 35.9059  255 255 255
-55.1656 -20.6376 -12.774  255 255 255
-8.11984 -39.1624 36.6656  255 255 255
-53.7551 -21.2814 -12.1167  255 255 255
-24.6596 -34.5509 27.6718  255 255 255
-25.021 -34.5809 28.5412  255 255 255
-22.5875 -35.5874 30.2579  255 255 255
-67.309 -19.3726 -13.8  255 255 255
-9.64525 -40.0476 35.1473  255 255 255
25.4886 -48.2018 26.1732  255 255 255
-51.6549 -24.6329 -6.93216  255 255 255
-25.9539 -35.154 25.5381  255 255 255
-26.4771 -35.0594 24.9014  255 255 255
-24.779 -35.921 26.8438  255 255 255
-24.7789 -35.921 26.8437  255 255 255
-60.3993 -23.4255 -8.46207  255 255 255
-47.7232 -27.9189 -3.37479  255 255 255
-59.3168 -25.4251 -5.71198  255 255 255
-57.9525 -25.8839 -5.33833  255 255 255
22.2307 -51.3773 31.6047  255 255 255
5.32795 -47.6914 37.4498  255 255 255
-28.8652 -37.1262 23.1032  255 255 255
-7.02988 -44.8352 35.0633  255 255 255
-47.9649 -30.9518 0.24167  255 255 255
-10.125 -44.3285 32.0512  255 255 255
-53.0566 -30.0223 -0.130559  255 255 255
-48.0634 -31.5972 1.76739  255 255 255
-7.68936 -46.9452 36.6131  255 255 255
-32.3751 -39.3891 24.8491  255 255 255
-8.24892 -47.2178 36.9605  255 255 255
-53.8566 -32.5471 4.13276  255 255 255
-31.0989 -40.3028 24.691  255 255 255
-32.3048 -41.5266 23.1062  255 255 255
13.5821 -56.3056 34.1784  255 255 255
-58.4495 -35.9648 7.12131  255 255 255
-51.1163 -38.4582 10.8869  255 255 255
-59.2742 -36.2882 7.22303  255 255 255
-60.1104 -37.1619 8.71453  255 255 255
12.1965 -61.9884 38.636  255 255 255
9.23876 -64.5693 44.7217  255 255 255
9.86766 -64.8722 45.0462  255 255 255
11.6584 -66.8979 42.5396  255 255 255
10.2807 -66.564 44.5144  255 255 255
-37.9864 -51.6164 28.0201  255 255 255
-11.6856 -60.4591 39.3475  255 255 255
-11.4428 -61.1123 40.1475  255 255 255
-9.81583 -62.7824 42.4186  255 255 255
-5.831 104.387 -48.2216  255 255 255
6.78856 107.634 -53.3131  255 255 255
43.3583 117.807 -68.5605  255 255 255
8.86744 108.086 -54.419  255 255 255
50.2894 118.697 -71.4312  255 255 255
54.0755 119.688 -72.5864  255 255 255
39.5255 115.457 -67.011  255 255 255
12.1159 107.811 -56.7208  255 255 255
31.6228 111.797 -66.4325  255 255 255
-6.39359 99.5537 -50.4372  255 255 255
-6.35927 99.6039 -50.528  255 255 255
51.0694 114.51 -76.4601  255 255 255
52.4612 114.928 -77.0296  255 255 255
52.5761 114.999 -77.118  255 255 255
58.8582 116.907 -80.1984  255 255 255
58.4178 116.491 -79.5179  255 255 255
32.7616 109.708 -68.8979  255 255 255
38.4805 111.023 -71.292  255 255 255
38.4247 110.948 -71.3018  255 255 255
-8.0962 98.562 -50.9214  255 255 255
-4.57595 99.1284 -51.815  255 255 255
44.1786 112.524 -73.6826  255 255 255
-38.3011 87.5917 -33.1647  255 255 255
68.5993 117.993 -84.4075  255 255 255
14.8656 104.096 -61.6216  255 255 255
57.3231 71.7015 -16.8973  255 255 255
-63.5466 79.7996 -21.6763  255 255 255
-60.0279 79.2532 -21.3034  255 255 255
17.1565 103.595 -63.0507  255 255 255
14.8627 102.8 -62.4372  255 255 255
24.2858 105.556 -67.1855  255 255 255
55.8983 46.7577 19.7073  255 255 255
0.246626 98.5875 -56.3009  255 255 255
-1.59365 97.8494 -55.1067  255 255 255
64.1465 114.401 -85.3202  255 255 255
11.6535 100.729 -62.0453  255 255 255
-35.3973 88.709 -40.4074  255 255 255
6.44689 99.1487 -59.552  255 255 255
63.6601 38.6361 29.9817  255 255 255
62.7364 38.1596 30.796  255 255 255
63.058 37.4196 32.0677  255 255 255
4.86447 98.7328 -58.9623  255 255 255
32.6337 105.683 -71.5246  255 255 255
-73.0488 79.1976 -23.1899  255 255 255
-70.5436 79.5673 -24.0735  255 255 255
63.3855 36.44 33.0445  255 255 255
60.6367 38.7297 29.3011  255 255 255
-9.62777 94.5043 -52.4487  255 255 255
-9.48645 94.7377 -52.9595  255 255 255
-43.052 86.0758 -37.3173  255 255 255
18.9437 101.7 -65.9011  255 255 255
71.3104 34.4989 35.1008  255 255 255
60.8764 39.8786 26.8354  255 255 255
17.5055 101.314 -65.6345  255 255 255
59.9303 41.8245 23.1989  255 255 255
62.9682 37.4779 29.7522  255 255 255
63.5592 37.7587 29.252  255 255 255
-63.1502 80.1087 -28.1586  255 255 255
-41.0679 85.7114 -38.7759  255 255 255
32.0191 104.718 -73.8496  255 255 255
32.0191 104.718 -73.8496  255 255 255
14.4662 99.2919 -64.9165  255 255 255
58.9226 42.8166 20.0617  255 255 255
-63.696 79.8305 -28.5322  255 255 255
-53.1282 82.2256 -33.6707  255 255 255
-13.1303 91.8902 -52.5607  255 255 255
-9.19232 92.716 -54.3649  255 255 255
35.0934 103.539 -74.9038  255 255 255
18.3199 98.885 -67.0882  255 255 255
18.2534 98.7571 -66.9164  255 255 255
28.8194 101.421 -72.3293  255 255 255
-71.6462 76.5444 -24.9188  255 255 255
31.4596 101.595 -74.2362  255 255 255
34.7304 102.161 -75.4817  255 255 255
30.3371 100.79 -74.155  255 255 255
73.3848 110.787 -92.8417  255 255 255
64.0215 57.9237 -8.22429  255 255 255
-13.2429 89.7183 -53.6285  255 255 255
-13.0898 89.9102 -53.9709  255 255 255
-1.46226 92.6284 -59.009  255 255 255
64.9749 56.3865 -6.45505  255 255 255
8.7737 95.0969 -64.1901  255 255 255
38.9078 102.02 -78.6072  255 255 255
51.0815 104.827 -84.8217  255 255 255
-55.5696 78.5741 -34.5057  255 255 255
56.1422 104.141 -87.7141  255 255 255
71.6246 107.254 -94.7586  255 255 255
-6.59262 89.0985 -58.7899  255 255 255
99.7254 113.061 -108.217  255 255 255
99.8058 113.054 -108.37  255 255 255
49.8965 101.296 -86.025  255 255 255
-31.5554 82.5007 -47.6458  255 255 255
-13.8936 85.451 -56.4131  255 255 255
-13.8882 85.4409 -56.4071  255 255 255
54.0978 100.984 -88.4087  255 255 255
63.7453 32.0853 25.3872  255 255 255
63.8423 32.1109 25.2837  255 255 255
52.6191 100.686 -88.0864  255 255 255
52.8293 100.983 -88.4617  255 255 255
47.4415 99.3521 -85.8815  255 255 255
82.9838 107.192 -101.692  255 255 255
-22.9498 83.1825 -52.5497  255 255 255
100.229 110.42 -110.45  255 255 255
-8.28764 86.045 -60.4303  255 255 255
-6.67045 86.4742 -61.1124  255 255 255
53.5931 99.7286 -89.262  255 255 255
79.234 105.076 -100.46  255 255 255
112.219 112.702 -116.047  255 255 255
65.1761 50.714 -8.90185  255 255 255
54.5031 99.1099 -90.0744  255 255 255
64.0179 101.46 -94.7684  255 255 255
39.4448 96.1051 -83.2139  255 255 255
-4.94042 85.2204 -61.4107  255 255 255
-57.2169 73.9007 -35.5659  255 255 255
-52.9037 74.9176 -38.7064  255 255 255
58.269 99.4969 -92.8742  255 255 255
33.679 93.0764 -81.5849  255 255 255
16.4223 89.0259 -73.9843  255 255 255
-6.76236 83.8558 -62.5767  255 255 255
65.6003 99.1061 -97.3436  255 255 255
-52.6864 73.3831 -39.0438  255 255 255
-49.0455 74.8868 -41.9725  255 255 255
-38.2111 76.9912 -47.4386  255 255 255
-9.83121 82.7859 -61.2442  255 255 255
60.8622 53.1304 -19.9021  255 255 255
64.932 48.1824 -11.6086  255 255 255
-67.5382 70.2813 -32.9777  255 255 255
-67.5014 70.1947 -32.7614  255 255 255
-26.9985 78.4301 -53.6209  255 255 255
32.8242 91.1779 -83.6326  255 255 255
-48.3913 72.8635 -41.6416  255 255 255
-47.2245 73.7524 -44.0046  255 255 255
39.261 91.3707 -86.8885  255 255 255
39.1553 91.2422 -86.6948  255 255 255
-7.98715 81.2386 -63.7943  255 255 255
-52.2189 71.9389 -41.285  255 255 255
-21.4346 78.5758 -57.3701  255 255 255
-9.88658 80.7689 -63.1365  255 255 255
22.8227 86.9426 -79.0115  255 255 255
27.9554 88.1719 -81.5361  255 255 255
-11.0823 80.1843 -63.0302  255 255 255
-11.2239 79.9676 -62.6395  255 255 255
-47.5829 72.7232 -44.8412  255 255 255
6.20782 82.6381 -71.1783  255 255 255
26.4464 87.0431 -81.7008  255 255 255
26.4464 87.0433 -81.7011  255 255 255
-16.6856 77.5941 -60.1565  255 255 255
-81.037 65.4915 -28.4011  255 255 255
-80.9715 65.255 -28.0439  255 255 255
69.7213 94.5095 -102.173  255 255 255
69.8911 94.7154 -102.55  255 255 255
-18.9146 77.2094 -59.7959  255 255 255
14.5143 84.0111 -76.5514  255 255 255
14.5744 84.0875 -76.7038  255 255 255
94.0484 99.2752 -114.957  255 255 255
-81.1309 64.8082 -28.6127  255 255 255
-47.1134 71.2886 -45.9864  255 255 255
63.452 25.5413 20.9019  255 255 255
-48.3756 70.7853 -44.9938  255 255 255
90.0522 98.1494 -113.906  255 255 255
55.4982 90.8483 -97.1175  255 255 255
28.71 85.3189 -84.5422  255 255 255
31.3187 85.8994 -86.2271  255 255 255
31.5155 86.1803 -86.7113  255 255 255
-78.4304 64.5819 -30.7278  255 255 255
-13.2276 76.3748 -63.6282  255 255 255
-2.12325 78.8737 -69.6541  255 255 255
62.0066 91.2251 -101.614  255 255 255
62.0377 91.3062 -101.774  255 255 255
62.0471 91.276 -101.731  255 255 255
72.2007 92.875 -105.892  255 255 255
-75.8838 64.8762 -32.6591  255 255 255
-0.632109 78.6362 -71.0538  255 255 255
67.3392 20.8304 25.491  255 255 255
32.2558 84.1613 -87.5273  255 255 255
-6.85768 76.511 -67.8695  255 255 255
83.8276 93.8992 -112.944  255 255 255
100.245 96.6318 -120.707  255 255 255
80.3646 92.7348 -111.274  255 255 255
97.1892 95.7636 -119.661  255 255 255
-25.3094 72.7797 -59.0171  255 255 255
-0.609102 77.3974 -71.6001  255 255 255
-1.7928 77.1149 -71.7126  255 255 255
89.824 93.8709 -116.72  255 255 255
89.6762 93.8326 -116.687  255 255 255
67.5497 89.2203 -105.982  255 255 255
62.6107 87.66 -103.328  255 255 255
53.8651 86.185 -100.163  255 255 255
63.4801 22.3456 18.0835  255 255 255
63.4802 22.3457 18.0834  255 255 255
-75.4126 62.1775 -34.0737  255 255 255
65.4571 39.0841 -16.0529  255 255 255
3.09103 74.0297 -76.6268  255 255 255
1.9311 72.7072 -75.4482  255 255 255
45.5535 80.7471 -98.9946  255 255 255
60.6025 42.3238 -27.525  255 255 255
-25.5653 68.0852 -62.5454  255 255 255
34.0038 78.1337 -93.9149  255 255 255
-27.5644 67.4242 -61.43  255 255 255
30.6623 76.892 -91.5715  255 255 255
42.4165 78.3255 -98.3404  255 255 255
39.1059 75.835 -94.0457  255 255 255
-82.4444 52.2746 -24.3672  255 255 255
-13.1647 67.8822 -70.5288  255 255 255
-14.8644 67.2812 -69.684  255 255 255
-34.2109 63.1753 -60.0442  255 255 255
64.8846 33.9492 -22.0311  255 255 255
63.5474 34.7733 -25.0304  255 255 255
-28.3048 63.3804 -63.8872  255 255 255
58.3457 20.8825 3.52265  255 255 255
61.3102 36.3017 -29.5489  255 255 255
-58.7252 58.1554 -47.8296  255 255 255
66.2585 30.9088 -20.0933  255 255 255
56.0231 22.5763 -2.00878  255 255 255
32.2541 69.7994 -95.0084  255 255 255
13.1274 67.5227 -87.0356  255 255 255
35.4097 70.9614 -99.3768  255 255 255
29.2612 70.4258 -97.7867  255 255 255
-72.2154 54.6922 -40.9144  255 255 255
-72.1935 54.816 -41.2211  255 255 255
-72.1799 54.8698 -41.3405  255 255 255
66.0368 29.7508 -21.2884  255 255 255
-55.7254 57.0415 -51.0252  255 255 255
-55.7155 57.023 -50.9474  255 255 255
28.8319 68.9674 -96.3359  255 255 255
-33.0559 60.3734 -64.0318  255 255 255
-33.0559 60.3734 -64.0319  255 255 255
13.5058 65.1829 -86.2398  255 255 255
44.4906 71.1992 -105.603  255 255 255
65.402 73.2367 -116.486  255 255 255
71.0294 5.34232 26.5379  255 255 255
58.1153 37.2039 -39.2606  255 255 255
-25.0843 60.1676 -68.4626  255 255 255
44.0722 69.4249 -105.951  255 255 255
44.089 69.4405 -105.977  255 255 255
-22.2026 60.0498 -70.0559  255 255 255
-22.1256 60.183 -70.4661  255 255 255
-22.147 60.1415 -70.195  255 255 255
-6.29846 61.7871 -78.5145  255 255 255
60.7042 33.5078 -34.7842  255 255 255
37.0025 67.7912 -102.807  255 255 255
25.6563 65.8153 -97.4072  255 255 255
56.6455 18.4907 -3.12629  255 255 255
56.8022 18.5481 -3.30722  255 255 255
42.4919 67.2459 -106.602  255 255 255
71.2687 2.53016 25.9958  255 255 255
14.5903 62.3876 -91.5902  255 255 255
-55.6778 53.3386 -54.1504  255 255 255
56.733 16.5572 -4.4147  255 255 255
46.6159 65.3352 -110.728  255 255 255
14.4568 61.1246 -92.5628  255 255 255
12.0043 60.5452 -92.2538  255 255 255
0.377599 59.1541 -86.1511  255 255 255
36.7841 63.5144 -106.268  255 255 255
61.8453 28.1988 -34.6513  255 255 255
61.6971 28.1995 -34.5306  255 255 255
62.4178 27.4653 -33.6917  255 255 255
40.4774 63.2392 -108.462  255 255 255
64.2524 24.7438 -30.1373  255 255 255
-7.35115 55.9119 -83.2689  255 255 255
11.0477 58.238 -94.0385  255 255 255
-6.30913 55.8166 -83.5037  255 255 255
-6.2779 55.8173 -83.5361  255 255 255
66.3709 4.1444 12.3285  255 255 255
-33.116 51.936 -69.6848  255 255 255
-7.61786 54.8301 -84.2115  255 255 255
67.5986 2.58505 14.6589  255 255 255
64.1097 22.1326 -32.3455  255 255 255
72.6411 -3.63752 24.3135  255 255 255
-53.5385 46.5535 -56.1039  255 255 255
64.9422 20.219 -31.2761  255 255 255
-48.1976 48.2749 -62.486  255 255 255
-31.0267 49.1601 -72.8628  255 255 255
-31.0267 49.1601 -72.8628  255 255 255
69.5104 -1.70811 16.2193  255 255 255
-59.4937 46.0559 -57.306  255 255 255
-10.8009 2.82938 29.446  255 255 255
-10.7608 2.84975 29.3165  255 255 255
-63.021 44.8074 -55.3086  255 255 255
-63.0356 44.7802 -55.2707  255 255 255
-66.9909 44.2677 -53.1698  255 255 255
-61.2791 44.5991 -56.7261  255 255 255
-7.2186 49.8606 -88.2418  255 255 255
68.725 -2.21456 14.2435  255 255 255
4.57202 -3.84134 36.5191  255 255 255
-67.3186 42.9877 -53.7838  255 255 255
-46.8587 44.4058 -65.697  255 255 255
68.063 -2.40842 11.4622  255 255 255
68.0384 -2.37447 11.5096  255 255 255
-11.9156 47.0442 -85.6551  255 255 255
-14.5361 1.65643 27.6638  255 255 255
70.036 -4.75184 15.0236  255 255 255
-52.225 43.5424 -63.2371  255 255 255
-3.75635 47.0171 -92.4645  255 255 255
-12.0049 -2.27256 33.3377  255 255 255
10.0626 42.9978 -92.1302  255 255 255
70.3264 -7.43847 15.4074  255 255 255
24.1365 37.8046 -86.0671  255 255 255
-15.5519 -0.932195 29.5005  255 255 255
68.2595 -6.2903 9.68839  255 255 255
-18.7892 0.175517 25.1221  255 255 255
72.4744 -11.3111 16.858  255 255 255
-29.3085 40.2644 -81.2094  255 255 255
-19.8262 -1.20662 24.9073  255 255 255
-23.902 39.7611 -84.3404  255 255 255
11.4605 -9.99678 35.7229  255 255 255
60.6967 -1.8438 -7.42716  255 255 255
12.3597 -10.9369 35.6369  255 255 255
-41.4642 35.5236 -76.6731  255 255 255
-9.74767 -9.91741 38.1721  255 255 255
-9.74767 -9.91741 38.1721  255 255 255
-20.1758 1.8365 8.81793  255 255 255
-21.9091 -2.8051 22.1236  255 255 255
-34.9022 32.4839 -79.2681  255 255 255
64.9603 -11.634 -2.49956  255 255 255
-4.93906 -15.1503 39.9035  255 255 255
76.6634 -23.196 20.3469  255 255 255
76.1167 -23.3664 17.8939  255 255 255
76.7156 -22.0283 9.27233  255 255 255
-17.1 -14.0004 34.1753  255 255 255
10.5733 -20.0387 35.6383  255 255 255
26.9253 -22.5538 33.6087  255 255 255
9.42035 -21.0775 38.1752  255 255 255
71.9164 -23.2075 6.48291  255 255 255
-13.0142 -16.7379 36.7234  255 255 255
-30.9854 -7.93831 15.7704  255 255 255
67.4254 -20.8635 -3.71071  255 255 255
68.7795 -24.2919 -2.94475  255 255 255
74.6949 -29.8977 7.67903  255 255 255
-32.9488 -14.1237 24.0176  255 255 255
69.3544 -27.7051 -3.05618  255 255 255
10.8112 -28.2731 41.8373  255 255 255
-28.4103 -17.1389 28.0919  255 255 255
80.6734 -32.1883 0.0966881  255 255 255
80.6761 -32.1882 0.0941626  255 255 255
-6.95997 -25.262 41.2353  255 255 255
-7.66893 -25.0539 40.4867  255 255 255
-7.67482 -25.0507 40.5201  255 255 255
78.7491 -31.6228 -3.64  255 255 255
-31.2079 -17.2383 27.603  255 255 255
75.7285 -34.9942 7.5236  255 255 255
-29.6309 -19.4066 30.6749  255 255 255
13.9759 -31.4304 37.97  255 255 255
-33.7369 -17.9861 22.8989  255 255 255
-26.9242 -22.5825 35.2541  255 255 255
-34.6772 -6.47851 -29.9139  255 255 255
-33.6034 -18.9679 21.9168  255 255 255
-6.43499 -29.9127 44.2578  255 255 255
-6.45628 -29.947 44.3182  255 255 255
69.8523 -40.1855 12.7567  255 255 255
-16.7691 -27.6338 41.1429  255 255 255
-28.3389 -23.508 33.3957  255 255 255
-17.7046 -27.4634 40.9958  255 255 255
-7.61897 -30.6334 45.0318  255 255 255
-50.7463 -5.49468 -31.2786  255 255 255
-15.6172 -28.5783 41.0848  255 255 255
-37.1991 -10.4128 -25.3255  255 255 255
-8.58183 -31.2005 42.734  255 255 255
-43.2228 -10.1682 -25.5511  255 255 255
5.32623 -34.4723 40.4708  255 255 255
5.57309 -34.4933 40.1588  255 255 255
-41.5576 -11.0001 -24.2635  255 255 255
-23.629 -27.2712 34.2362  255 255 255
-15.1737 -30.7237 39.4855  255 255 255
-41.1604 -13.4777 -20.9347  255 255 255
-26.9471 -26.6895 30.7258  255 255 255
-26.9354 -26.6956 30.6868  255 255 255
-42.3692 -13.2832 -21.3277  255 255 255
-13.8365 -31.7091 39.3899  255 255 255
-7.62667 -33.8777 42.402  255 255 255
-43.7165 -14.3808 -20.1997  255 255 255
4.45257 -36.6174 39.146  255 255 255
-29.6828 -25.9672 25.0185  255 255 255
-13.3355 -32.2288 39.1062  255 255 255
-11.7425 -32.7507 38.8554  255 255 255
-71.2263 -8.49046 -27.6114  255 255 255
-19.041 -31.4525 36.5368  255 255 255
9.21529 -38.9569 36.2338  255 255 255
-48.3348 -17.4912 -15.7032  255 255 255
-6.85037 -36.7492 40.4399  255 255 255
4.77861 -39.0057 36.7564  255 255 255
-31.4101 -27.5702 21.2155  255 255 255
-48.0769 -18.0087 -15.4749  255 255 255
-41.1288 -20.6409 -9.34377  255 255 255
-45.4091 -19.0224 -13.8668  255 255 255
-19.2033 -33.678 36.6427  255 255 255
-22.6702 -31.8649 31.1543  255 255 255
-23.3462 -31.8867 31.0147  255 255 255
19.4402 -42.9435 31.9543  255 255 255
-17.0446 -35.3517 34.8593  255 255 255
-7.78495 -38.0384 37.5461  255 255 255
-57.9619 -18.2379 -14.996  255 255 255
-22.9604 -33.2104 29.973  255 255 255
-28.3492 -31.7289 27.0567  255 255 255
-29.4236 -30.9346 22.5315  255 255 255
-54.6716 -19.9307 -13.5387  255 255 255
-23.7691 -33.6189 28.9424  255 255 255
2.24043 -41.221 34.9873  255 255 255
-2.95253 -40.1931 36.1475  255 255 255
-14.4141 -37.3477 34.9077  255 255 255
-1.22692 -41.3089 35.6963  255 255 255
-54.8031 -21.7921 -10.7481  255 255 255
-0.556744 -41.7209 35.1177  255 255 255
-22.5303 -36.2106 29.8904  255 255 255
-25.4852 -35.6818 25.6896  255 255 255
-54.4699 -24.8472 -6.68856  255 255 255
-52.9014 -25.365 -5.955  255 255 255
-57.8827 -24.2554 -7.05239  255 255 255
-8.2561 -42.3149 34.2664  255 255 255
-19.6626 -40.3161 31.8176  255 255 255
-6.60213 -44.3598 35.4278  255 255 255
-47.6295 -29.9272 -0.781077  255 255 255
-50.1119 -29.3112 -0.948665  255 255 255
-70.1875 -24.4699 -7.16687  255 255 255
-49.5305 -31.5703 1.56495  255 255 255
-48.1293 -32.7118 3.35428  255 255 255
11.1613 -53.8271 34.7537  255 255 255
-31.8068 -42.5276 22.7255  255 255 255
12.7097 -59.2234 37.7093  255 255 255
-60.2491 -38.3487 9.90848  255 255 255
10.9592 -62.7371 39.0312  255 255 255
2.82669 -60.5199 36.5403  255 255 255
-2.15811 -59.6473 37.5809  255 255 255
-1.95311 -60.3105 38.574  255 255 255
6.13233 -65.6156 45.9881  255 255 255
-4.34856 -62.7454 40.1698  255 255 255
-10.458 -60.7958 39.9487  255 255 255
-12.2601 -60.4253 38.8135  255 255 255
1.58792 -65.0367 42.0568  255 255 255
-13.8288 -60.6514 41.3354  255 255 255
-10.0766 -62.0215 41.1337  255 255 255
4.67138 106.874 -52.2798  255 255 255
0.223352 105.591 -50.5208  255 255 255
32.8077 113.636 -64.0701  255 255 255
64.2224 122.806 -77.6963  255 255 255
31.5911 113.247 -64.4586  255 255 255
16.025 106.818 -60.2183  255 255 255
62.8171 119.438 -79.7522  255 255 255
11.2997 104.616 -57.3101  255 255 255
11.7058 105.271 -58.2861  255 255 255
59.9363 118.27 -79.0734  255 255 255
59.9206 118.234 -79.0009  255 255 255
50.4909 115.487 -75.3085  255 255 255
-5.50389 99.4064 -51.2477  255 255 255
24.2821 107.272 -65.0337  255 255 255
-11.6398 97.3302 -48.9593  255 255 255
57.6022 71.5696 -14.2443  255 255 255
40.1059 111.244 -72.284  255 255 255
18.244 105.217 -62.7756  255 255 255
-12.6835 96.8818 -48.957  255 255 255
16.2678 104.625 -62.0441  255 255 255
64.6808 42.4616 28.5794  255 255 255
-1.44134 99.4142 -54.7508  255 255 255
59.7171 68.1154 -11.16  255 255 255
-17.1544 94.5739 -48.0085  255 255 255
57.8751 70.2111 -16.0859  255 255 255
60.4901 67.2088 -11.6491  255 255 255
-63.4472 81.8107 -26.0418  255 255 255
-59.0263 83.3689 -28.9532  255 255 255
21.8836 103.941 -66.2273  255 255 255
21.4723 103.404 -65.404  255 255 255
62.4256 63.9003 -7.7309  255 255 255
-6.77811 96.2867 -53.1751  255 255 255
-29.568 90.3512 -42.8672  255 255 255
57.4978 44.8047 21.0283  255 255 255
63.7784 36.0745 33.6014  255 255 255
-28.4922 89.7566 -43.5877  255 255 255
-4.37075 95.8873 -54.8653  255 255 255
26.2191 103.969 -69.314  255 255 255
62.6192 37.9449 30.0469  255 255 255
35.3835 106.152 -73.4977  255 255 255
-5.52575 94.731 -55.1507  255 255 255
5.64015 97.4441 -60.1985  255 255 255
21.4931 101.391 -67.736  255 255 255
27.5893 102.922 -70.7611  255 255 255
-6.60096 94.1273 -55.3626  255 255 255
-24.791 89.7738 -47.009  255 255 255
-10.1195 93.2329 -53.8448  255 255 255
17.8407 100.052 -66.431  255 255 255
63.3638 36.2698 28.3604  255 255 255
-6.72347 92.8025 -56.1068  255 255 255
-4.35913 93.4792 -57.1464  255 255 255
-68.2174 77.3706 -27.0079  255 255 255
16.137 97.3783 -67.3421  255 255 255
16.1441 97.4239 -67.4687  255 255 255
-75.8712 75.2869 -23.917  255 255 255
-62.6551 78.278 -30.4134  255 255 255
-62.6471 78.2478 -30.346  255 255 255
-6.73791 91.6464 -57.2426  255 255 255
-10.3787 90.465 -55.2991  255 255 255
62.6462 107.689 -88.5633  255 255 255
86.5962 113.293 -99.4167  255 255 255
18.5347 97.3075 -69.5982  255 255 255
35.321 101.03 -76.6834  255 255 255
104.148 116.971 -107.22  255 255 255
-29.2917 85.2533 -46.4355  255 255 255
-29.2479 85.3948 -46.6771  255 255 255
-2.01239 91.7857 -59.6931  255 255 255
79.3001 110.873 -96.9649  255 255 255
79.4996 111.002 -97.2712  255 255 255
39.9923 100.83 -78.5761  255 255 255
39.9924 100.83 -78.5764  255 255 255
-66.8917 76.0509 -29.3853  255 255 255
52.6571 103.52 -86.1801  255 255 255
52.5722 103.436 -86.1111  255 255 255
47.5223 102.041 -83.7916  255 255 255
49.3036 102.475 -84.5338  255 255 255
49.3831 102.552 -84.7769  255 255 255
73.5142 107.877 -95.1852  255 255 255
-3.13683 88.7861 -61.0214  255 255 255
-3.00684 88.9809 -61.3806  255 255 255
40.439 98.7132 -82.226  255 255 255
-66.0781 74.1878 -31.2084  255 255 255
-16.8778 84.3212 -55.1694  255 255 255
-23.3895 82.5112 -53.0243  255 255 255
71.2098 103.321 -97.5153  255 255 255
13.2256 90.4677 -71.3098  255 255 255
-55.0072 74.897 -37.7739  255 255 255
-54.997 74.9101 -37.8296  255 255 255
38.4135 95.2794 -83.57  255 255 255
55.261 98.3557 -90.025  255 255 255
68.7393 102.115 -98.2496  255 255 255
68.459 101.897 -97.6666  255 255 255
-19.3844 82.2611 -55.5257  255 255 255
60.5064 53.2882 -15.9368  255 255 255
13.914 89.1229 -71.8825  255 255 255
13.9536 89.1271 -71.999  255 255 255
35.1586 93.7201 -82.448  255 255 255
-61.7948 72.5169 -35.1014  255 255 255
-61.7948 72.5169 -35.1014  255 255 255
-61.7524 72.6509 -35.2697  255 255 255
38.3572 93.7924 -84.9054  255 255 255
-21.574 80.4962 -55.3375  255 255 255
66.616 46.7094 -8.1986  255 255 255
-24.0964 79.8897 -55.0253  255 255 255
-23.1375 79.8449 -55.2592  255 255 255
-75.1651 68.4851 -28.4689  255 255 255
-6.90864 82.668 -63.726  255 255 255
29.8176 89.8783 -81.7438  255 255 255
-45.7558 74.1992 -44.8796  255 255 255
35.2204 90.4007 -84.6918  255 255 255
-49.0799 72.9983 -42.9625  255 255 255
-49.0668 73.0206 -43.088  255 255 255
-17.3452 79.6211 -59.4038  255 255 255
61.9955 29.4444 18.8876  255 255 255
-31.1148 76.4253 -52.2438  255 255 255
-20.3158 78.2394 -57.7386  255 255 255
-43.0206 73.7438 -46.474  255 255 255
-54.6838 71.2959 -40.6739  255 255 255
64.4213 94.8801 -100.027  255 255 255
66.0022 43.7399 -9.5957  255 255 255
-73.9477 66.5886 -30.8886  255 255 255
59.3566 30.4349 13.2084  255 255 255
64.3261 93.5592 -100.661  255 255 255
-2.13146 80.0707 -68.4613  255 255 255
32.6499 86.9948 -85.7872  255 255 255
65.4813 23.572 24.0833  255 255 255
58.7725 51.7847 -26.8064  255 255 255
-7.16231 78.3451 -66.1482  255 255 255
-6.02945 78.1791 -66.511  255 255 255
-5.98338 78.244 -66.646  255 255 255
-56.0306 68.4456 -41.9671  255 255 255
-56.0206 68.6171 -42.4214  255 255 255
-56.0434 68.4811 -42.1115  255 255 255
-54.6821 68.819 -42.6588  255 255 255
-64.0068 66.9878 -38.152  255 255 255
97.1647 97.6913 -118.741  255 255 255
-26.0677 73.6839 -57.7904  255 255 255
92.439 97.1765 -118.478  255 255 255
57.3666 51.2581 -31.5396  255 255 255
-58.0544 66.6588 -42.3094  255 255 255
92.5151 94.2642 -117.612  255 255 255
40.8159 84.0452 -93.5486  255 255 255
58.2277 26.3244 11.148  255 255 255
32.4972 81.5792 -90.1568  255 255 255
59.6831 25.497 10.7159  255 255 255
-57.675 64.603 -43.4135  255 255 255
85.7556 89.3366 -116.605  255 255 255
59.973 25.115 9.40023  255 255 255
-32.8657 67.839 -56.4471  255 255 255
-32.866 67.8384 -56.446  255 255 255
47.6488 81.1666 -99.2778  255 255 255
59.5899 42.9875 -30.5059  255 255 255
59.6817 43.0147 -30.5965  255 255 255
66.2285 34.6317 -15.2398  255 255 255
66.2217 34.611 -15.2307  255 255 255
-29.2648 66.9829 -60.5933  255 255 255
59.9526 22.4313 8.65981  255 255 255
-41.5003 64.1473 -54.3746  255 255 255
31.873 75.2836 -92.7985  255 255 255
22.4687 75.7446 -92.3055  255 255 255
-4.59292 69.2198 -74.8832  255 255 255
-29.2057 64.4452 -61.1985  255 255 255
63.5557 17.1462 15.0115  255 255 255
-58.4393 60.0956 -46.5895  255 255 255
-12.1659 67.0091 -71.9788  255 255 255
16.8205 69.3673 -84.6854  255 255 255
65.4659 13.9575 18.0839  255 255 255
14.7574 70.4066 -87.0989  255 255 255
65.7496 31.6119 -18.8196  255 255 255
-55.7455 59.1847 -49.3921  255 255 255
-55.7465 59.2106 -49.4383  255 255 255
-55.7154 59.1572 -49.2378  255 255 255
-55.7296 59.2462 -49.5353  255 255 255
-39.6935 61.6521 -58.058  255 255 255
37.8989 72.6939 -97.3027  255 255 255
-61.8853 57.9708 -45.7161  255 255 255
55.923 23.4667 -1.21941  255 255 255
51.7003 75.4427 -106.797  255 255 255
-35.0726 61.9813 -60.7861  255 255 255
61.9534 35.5986 -28.3366  255 255 255
-4.55951 66.0015 -77.9818  255 255 255
64.4817 32.3298 -24.3462  255 255 255
65.4039 30.8681 -22.2294  255 255 255
-28.4611 61.884 -65.7502  255 255 255
-31.7594 60.7926 -63.5149  255 255 255
62.9726 14.7394 10.2728  255 255 255
56.3257 21.2384 -2.09795  255 255 255
64.9692 30.4148 -24.1759  255 255 255
64.9263 30.3959 -24.1174  255 255 255
60.3883 16.587 5.83341  255 255 255
-71.5739 54.1667 -42.8168  255 255 255
-56.971 55.4957 -51.2432  255 255 255
58.2502 35.669 -39.4472  255 255 255
64.4699 11.0045 11.3489  255 255 255
63.1323 29.4706 -29.5544  255 255 255
-38.6755 56.1584 -62.1257  255 255 255
61.903 30.2735 -32.8584  255 255 255
61.903 30.2735 -32.8584  255 255 255
-27.1583 57.8858 -70.9302  255 255 255
60.6568 31.0814 -35.9204  255 255 255
62.8636 28.4651 -30.3483  255 255 255
-56.9422 53.1029 -53.1416  255 255 255
-23.5197 57.3168 -71.8439  255 255 255
63.3132 27.3317 -28.8156  255 255 255
-4.43934 59.2162 -82.3712  255 255 255
4.20087 60.2735 -87.4903  255 255 255
65.1146 25.7708 -27.3953  255 255 255
-33.955 55.1988 -66.5633  255 255 255
32.3116 63.6188 -102.956  255 255 255
71.5482 67.824 -122.909  255 255 255
-70.113 50.3523 -47.0528  255 255 255
64.5948 25.1706 -28.6965  255 255 255
65.1697 24.7632 -27.9137  255 255 255
65.0481 24.7381 -27.7231  255 255 255
-32.9635 54.3751 -67.9122  255 255 255
-27.583 54.6121 -71.0219  255 255 255
-41.9767 52.8838 -63.5205  255 255 255
59.8782 11.3336 0.753412  255 255 255
-19.2045 53.9138 -74.6223  255 255 255
65.4574 23.1139 -28.2148  255 255 255
64.5149 6.27981 9.73008  255 255 255
12.9208 57.9301 -94.4659  255 255 255
-22.1238 52.8133 -72.9159  255 255 255
61.1542 9.20914 2.61715  255 255 255
-42.6861 51.1642 -63.7988  255 255 255
67.1016 -0.324198 22.377  255 255 255
67.0999 -0.324637 22.3785  255 255 255
69.3251 1.19101 18.0182  255 255 255
3.75527 5.80605 24.0414  255 255 255
-9.31387 52.5183 -84.6341  255 255 255
-9.29198 52.5126 -84.5948  255 255 255
-54.5382 47.282 -58.518  255 255 255
-10.9799 52.1319 -84.0772  255 255 255
-39.8072 48.294 -67.5813  255 255 255
-70.2776 45.2437 -50.5851  255 255 255
-58.2073 46.3304 -57.3532  255 255 255
75.5492 -7.48606 29.161  255 255 255
-63.8181 45.474 -54.2226  255 255 255
65.3782 1.80141 7.89888  255 255 255
-7.91794 -0.243691 33.6527  255 255 255
-13.7459 2.64732 27.5241  255 255 255
63.4904 2.24072 3.34513  255 255 255
-74.0974 42.7203 -49.7104  255 255 255
-23.8287 47.2141 -78.9452  255 255 255
-68.6163 42.6923 -52.9663  255 255 255
-42.2753 45.0266 -68.7143  255 255 255
-9.48447 -0.990751 33.7126  255 255 255
1.6393 -3.87597 37.1405  255 255 255
-61.3129 43.0598 -57.528  255 255 255
-12.0222 -0.582693 32.1994  255 255 255
62.5158 1.2483 -0.34639  255 255 255
-60.9828 41.7136 -58.6749  255 255 255
59.4062 3.49652 -5.77867  255 255 255
-5.29867 45.7156 -92.1391  255 255 255
-18.3651 2.4974 21.4668  255 255 255
-8.89971 44.2772 -90.8499  255 255 255
66.0963 -4.01232 5.74385  255 255 255
-16.4212 -1.3997 29.6605  255 255 255
-7.80025 -5.72434 37.3122  255 255 255
-0.462828 -7.54552 39.2391  255 255 255
76.0037 -12.9419 24.1014  255 255 255
0.182691 -8.09579 39.2344  255 255 255
-5.81663 -7.8202 39.4136  255 255 255
-39.4429 39.7605 -74.4886  255 255 255
-17.9536 -2.15995 28.5768  255 255 255
-17.9357 -2.16134 28.511  255 255 255
59.7122 -0.143152 -8.51439  255 255 255
71.5007 -11.8385 18.4643  255 255 255
-40.4362 39.5708 -74.4482  255 255 255
68.8187 -8.68961 9.32358  255 255 255
14.6054 30.7484 -77.4839  255 255 255
60.3241 -2.0321 -8.56573  255 255 255
-33.3875 38.0405 -80.6111  255 255 255
-5.87767 -9.92723 39.2716  255 255 255
-12.5347 -7.85271 36.1396  255 255 255
-17.908 -6.1363 31.1597  255 255 255
61.6262 -5.41691 -6.50599  255 255 255
-35.8656 35.843 -80.1242  255 255 255
59.9506 -4.07612 -10.5647  255 255 255
-21.7252 -3.28796 23.267  255 255 255
-12.1659 -9.67361 36.9254  255 255 255
66.0203 -9.81465 1.4334  255 255 255
-14.0805 -9.49487 35.4437  255 255 255
-21.6118 -4.97629 25.3234  255 255 255
12.1979 -14.0076 35.0051  255 255 255
80.8455 -18.7901 15.7233  255 255 255
80.8397 -18.7908 15.7281  255 255 255
-3.22515 -13.4026 40.1367  255 255 255
-3.17931 -13.3595 40.0409  255 255 255
-40.2493 33.2844 -79.4802  255 255 255
31.184 -14.4946 24.1862  255 255 255
-22.0449 -6.44544 25.6817  255 255 255
-21.665 -6.21568 24.8717  255 255 255
69.4824 -16.8607 5.72942  255 255 255
69.5954 -16.9173 5.63555  255 255 255
-28.4909 -1.65454 6.77886  255 255 255
68.5095 -18.6394 3.12764  255 255 255
68.5085 -18.6395 3.1286  255 255 255
84.031 -24.9924 11.3088  255 255 255
73.6836 -23.7382 9.54941  255 255 255
69.5093 -21.1501 1.11063  255 255 255
72.0834 -24.1643 7.94916  255 255 255
66.8895 -20.0881 -4.49896  255 255 255
-29.747 -8.21266 16.1229  255 255 255
75.6391 -25.1702 6.11354  255 255 255
-27.1901 -11.1466 23.5977  255 255 255
-10.9857 -18.5488 37.6509  255 255 255
66.3349 -21.3449 -7.59167  255 255 255
11.7305 -24.685 38.4864  255 255 255
77.9113 -28.3654 0.93694  255 255 255
66.9982 -24.3841 -6.99813  255 255 255
-32.9151 -13.2935 21.7736  255 255 255
-32.221 -15.9059 25.9556  255 255 255
81.0476 -31.9625 -3.08855  255 255 255
-19.5225 -21.3215 35.2334  255 255 255
-7.23422 -25.1971 40.7384  255 255 255
-6.55738 -25.6248 40.6869  255 255 255
-30.8942 -17.6789 28.254  255 255 255
74.671 -33.9704 6.24105  255 255 255
6.79813 -29.8108 44.1269  255 255 255
75.9433 -35.6796 8.39088  255 255 255
76.6315 -36.3184 9.26345  255 255 255
-15.2741 -24.0651 37.9561  255 255 255
